# .PCD v0.7 - Point Cloud Data file format
VERSION 0.7
FIELDS x y z
SIZE 4 4 4
TYPE F F F
COUNT 1 1 1
WIDTH 579
HEIGHT 1
VIEWPOINT 0 0 0 1 0 0 0
POINTS 579
DATA ascii
-1.3566235 -1.4851975 0.057708248
-1.3312863 -1.4722303 0.05768491
-1.3109598 -1.4640989 0.057667296
-1.3066611 -1.4724095 0.057668433
-1.2974904 -1.4756396 0.057663847
-1.3098843 -1.5148096 0.057691254
-1.2946322 -1.5248547 0.057685927
-2.2375674 -2.5732353 0.058830962
-2.2263455 -2.5834119 0.05882854
-2.2143886 -2.6155856 0.05883655
-2.1996799 -2.621906 0.058829919
-2.1790452 -2.6213641 0.058815934
-2.1567898 -2.6419153 0.058811359
-2.1472282 -2.6775787 0.058822751
-2.1355519 -2.6873603 0.05881989
-2.1089025 -2.7029023 0.058809973
-2.0790169 -2.7142901 0.058795892
-0.44992548 -0.69692141 0.056713
-0.40892625 -0.66301131 0.056668557
-0.40074015 -0.66425931 0.05666348
-0.36605161 -0.64150679 0.056628637
-0.36809218 -0.65610057 0.056636997
-0.34745944 -0.6450069 0.056617416
-0.32198924 -0.62008625 0.05658786
-0.32494277 -0.63018501 0.056594729
-0.3078723 -0.62238401 0.05657915
-0.2687825 -0.60231417 0.056542404
-0.24920531 -0.61747301 0.056536142
-0.24751723 -0.62073624 0.056536559
-0.23170939 -0.61123604 0.056521013
-0.23602422 -0.6452533 0.056540594
-0.21759482 -0.6300298 0.056520455
-0.22511066 -0.65872175 0.056539711
-0.20824288 -0.64584053 0.056521814
-0.20889968 -0.65440053 0.056526486
-0.20961615 -0.67837071 0.056538846
-0.19989026 -0.71331102 0.056549672
-0.18831804 -0.70298827 0.056536697
-0.19651026 -0.74069899 0.05656115
-0.20148417 -0.76241165 0.056575432
-0.19154377 -0.76631159 0.056570753
-0.20247917 -0.8156426 0.056603044
-0.2194798 -0.90843457 0.056661561
-0.19792329 -0.89683694 0.056641489
-0.18137892 -0.91269922 0.056638841
-0.16040081 -0.91480851 0.056626298
-0.15890573 -0.94017416 0.056638468
-0.15191059 -0.93069357 0.056629047
-0.13482328 -0.94860721 0.056627363
-0.12211102 -0.93216544 0.056610644
-0.11840798 -0.97205955 0.056629114
-0.098004252 -0.9591108 0.056609377
-0.094985381 -0.98728627 0.056622252
-0.072631612 -0.98641407 0.056607727
-0.064727396 -0.99183923 0.05660563
-0.053102061 -0.97449076 0.056589205
-0.040245652 -1.0057499 0.056597739
-0.035467267 -1.0033866 0.05659353
-0.026876733 -1.0055346 0.056589354
-0.022914886 -1.0463301 0.05660858
-0.016922325 -1.0752033 0.056620263
-0.012251139 -1.0757092 0.056617673
0.0080566704 -1.0596012 0.056596726
0.011558801 -1.072952 0.056601748
0.016300201 -1.0723372 0.056598522
0.03122212 -1.0593914 0.0565826
0.036012858 -1.0566936 0.056578267
0.059797555 -1.0378873 0.056553941
0.087094545 -1.0226246 0.056529485
0.10040532 -1.029725 0.05652542
0.10485806 -1.0217198 0.056518503
0.11765724 -0.98859173 0.056493126
0.1265088 -0.99940938 0.056493767
0.13870573 -0.97701132 0.056474574
0.15163107 -0.98043513 0.056468904
0.15550488 -0.97321749 0.056462765
0.17095706 -0.95217842 0.056442469
0.17881873 -0.94655204 0.056434903
0.19085965 -0.94247186 0.056425806
0.20334165 -0.94320971 0.056419116
0.21622898 -0.91350526 0.056395713
0.23602964 -0.9107849 0.056383107
0.24954233 -0.89448577 0.056366734
0.25409222 -0.89777952 0.056292802
0.26449168 -0.86746037 0.056272358
0.28376144 -0.88505226 0.056269597
0.28948238 -0.85621858 0.056252927
0.30316156 -0.84794307 0.056241401
0.30739588 -0.83353049 0.056232326
0.32696161 -0.80663127 0.056208976
0.33839861 -0.82000303 0.056208931
0.34956381 -0.79364443 0.056190617
0.36205196 -0.79698169 0.056185432
0.36544541 -0.78425378 0.05617772
0.38391745 -0.76176685 0.056157496
0.38898122 -0.76520658 0.056156427
0.41056222 -0.75237244 0.056139275
0.40854624 -0.72067267 0.0561257
0.41325644 -0.72299761 0.056124359
0.42356437 -0.7293936 0.056122027
0.43943769 -0.71438849 0.056107119
0.44588846 -0.68896693 0.056092273
0.46569133 -0.67636901 0.056076776
0.46890235 -0.64826894 0.056062493
0.48067445 -0.6622681 0.05606313
0.47092125 -0.62626743 0.056051563
0.4897747 -0.6452778 0.056051128
0.49232721 -0.63079792 0.056043424
0.50860077 -0.62035078 0.056031104
0.50170374 -0.59850705 0.056024574
0.52345282 -0.60784036 0.056018695
0.51285291 -0.58717966 0.0560144
0.53793049 -0.59497571 0.056006439
0.52627313 -0.56874305 0.056000158
0.54217553 -0.57422316 0.055995431
0.54706967 -0.56019336 0.055987149
0.55827767 -0.56914431 0.055986103
0.55974102 -0.55110669 0.055977643
0.56137151 -0.53394943 0.055969536
0.58355665 -0.5356583 0.055960756
0.58131272 -0.51047349 0.055950999
0.59787124 -0.50557876 0.055942021
0.61444181 -0.49587733 0.05593114
0.60572898 -0.48328215 0.055929467
0.6283291 -0.47500178 0.05591692
0.64000404 -0.46469742 0.055908076
0.64950901 -0.45650324 0.055901036
0.67179918 -0.45437527 0.055891536
0.65785539 -0.4316017 0.055887852
0.68905854 -0.43163389 0.055876009
0.68038952 -0.42144376 0.05587529
0.70956391 -0.41102046 0.055860411
0.65037608 -0.36092299 0.055863
0.60234368 -0.31723291 0.05586385
0.59569907 -0.30707705 0.055862356
0.58421588 -0.29710251 0.055862717
0.6016522 -0.28716436 0.055852517
0.6194393 -0.29430518 0.055848807
0.61179525 -0.28126535 0.055846632
0.61224788 -0.25879395 0.055838034
0.62882066 -0.26137692 0.055833176
0.63372588 -0.2439066 0.055825073
0.66049039 -0.25019062 0.055818155
0.67011172 -0.24560183 0.055813234
0.64742875 -0.21095146 0.055808652
0.66507643 -0.20649439 0.055801213
0.59986299 -0.17797746 0.05581294
0.61856943 -0.18203437 0.055808134
0.61450076 -0.16570063 0.055803791
0.61151308 -0.15499781 0.055801079
0.5958634 -0.14796799 0.055803765
0.59118623 -0.13505033 0.05580084
0.60392952 -0.13380572 0.055796303
0.61892211 -0.11859067 0.055786423
0.60277915 -0.108089 0.055788048
0.61913002 -0.097451642 0.055779435
0.66172791 -0.097711638 0.055766251
0.66016328 -0.094937816 0.055765867
0.64056003 -0.084450528 0.055768616
0.66337252 -0.080411151 0.055760324
0.68238151 -0.065030858 0.055749815
0.66797566 -0.058476239 0.055752195
0.70253122 -0.053964168 0.055740379
0.6877985 -0.05012013 0.055743679
0.77670324 -0.039605543 0.055713981
0.77486026 -0.03655605 0.055713665
0.73904037 -0.031942397 0.055723034
0.71646315 -0.020136997 0.055726372
0.72470909 -0.0040471554 0.055719364
0.70064092 0.0064870268 0.055723481
0.71438324 0.017396346 0.05571641
0.73891032 0.029331222 0.055705972
0.72945547 0.037114665 0.055706613
0.72445452 0.050475553 0.055704482
0.7182408 0.052663594 0.055705678
0.7781499 0.066932842 0.055684611
0.87811202 0.090860546 0.055646751
0.86437398 0.095978588 0.055650026
0.88131803 0.10508664 0.055643398
0.85903692 0.11892437 0.055647768
0.86540753 0.12336456 0.055645131
0.83667576 0.14184226 0.055650681
0.82163113 0.15529235 0.055652969
0.83777893 0.1655696 0.055646531
0.81607664 0.1705036 0.055652186
0.8208369 0.18836248 0.055647947
0.80274999 0.19014348 0.055652998
0.83958972 0.22117957 0.055637352
0.86043537 0.23837487 0.05562862
0.88017225 0.25212696 0.055620767
0.87146062 0.25300905 0.055623218
0.90018797 0.27418038 0.055611663
0.90841132 0.28097299 0.055608265
0.90905261 0.28516275 0.055607483
0.92397791 0.3026593 0.055600591
0.95486432 0.33115336 0.055587504
0.96956253 0.345653 0.055581175
0.99239707 0.36385164 0.055571973
1.0178924 0.38841721 0.055561148
1.0170982 0.3928093 0.05556079
1.0401478 0.41249874 0.055551387
1.0492525 0.4264423 0.055546883
1.0646542 0.43847477 0.055540778
1.0870422 0.45915288 0.055531476
1.1010225 0.47636998 0.055525139
1.1088279 0.48551846 0.05552166
1.1219623 0.49738073 0.055516284
1.1269449 0.50537658 0.055513792
1.1599618 0.53325617 0.055500533
1.1798788 0.54924637 0.05549264
1.1963041 0.569745 0.055485237
1.2133346 0.59104151 0.055477586
1.2467624 0.62176287 0.055463944
1.2641826 0.63784087 0.055456828
1.2823584 0.65456831 0.055449411
1.3021537 0.67244542 0.055441398
1.3165965 0.68754685 0.055435292
1.3370036 0.70626742 0.055427015
1.3538084 0.72317481 0.055420019
1.374805 0.74276584 0.055411447
1.3801552 0.75340044 0.055408638
1.3923074 0.76819372 0.055403292
1.4154902 0.78981501 0.055393856
1.4427805 0.81425166 0.055382885
1.4724379 0.84051132 0.055371016
1.4942436 0.86230034 0.055362001
1.5057149 0.87792492 0.055356793
1.5196121 0.89526957 0.055350654
1.551083 0.92405468 0.05533798
1.5722439 0.94662803 0.055329103
1.5982634 0.97267675 0.055318385
1.633276 1.0050112 0.055304259
1.6680338 1.0376691 0.055290207
1.683426 1.05785 0.055283356
1.7160683 1.0899463 0.055269994
1.7484601 1.1223471 0.055256709
1.7937759 1.1641276 0.055238485
1.8330098 1.2023275 0.055222519
1.8653944 1.2362959 0.055209078
1.901595 1.2734591 0.055194132
1.9415714 1.3138688 0.055177733
1.9852833 1.3575761 0.05515983
2.0262237 1.3999237 0.055142924
2.0837512 1.4550883 0.055119649
2.1271782 1.5006543 0.055101655
2.1774509 1.5520184 0.055081017
2.2360904 1.6104782 0.055057108
2.3022122 1.675539 0.055030212
2.3630497 1.7375486 0.05500526
2.448669 1.8197372 0.054970704
2.4934564 1.8712635 0.054951742
2.5127285 1.9033773 0.054942541
4.346704 3.3824286 0.05423215
4.3396983 3.4071796 0.054231822
4.3082576 3.4427533 0.054237857
4.3009062 3.4674387 0.054237649
4.2772865 3.4786792 0.054243758
4.2574768 3.4929981 0.054248407
4.2444854 3.5130324 0.054250345
4.2283573 3.5304196 0.054253504
4.2235122 3.5575347 0.054252297
4.2162457 3.582705 0.054251954
4.315506 3.7016139 0.05420962
4.5993805 3.9859705 0.05409421
4.9330273 4.319531 0.053958669
5.286119 4.676168 0.053814843
5.6154771 5.0171127 0.053679943
7.6302586 6.91114 0.05287385
7.6029768 6.9466267 0.052878708
7.5937953 6.9990749 0.052876294
11.037952 10.306849 0.051491618
10.997967 10.359267 0.05149883
12.000576 11.411789 0.051086634
11.953567 11.466353 0.051095635
11.905592 11.520027 0.051104933
11.858799 11.574903 0.051113755
11.798983 11.616904 0.051127821
11.746794 11.666391 0.051138878
11.70354 11.724886 0.05114612
11.653692 11.776798 0.051156044
11.598036 11.822764 0.051168442
11.553308 11.879988 0.051176131
11.492404 11.920417 0.051190585
11.432745 11.961993 0.051204383
11.391417 12.022957 0.051210821
11.349777 12.083793 0.051217139
11.271201 12.104803 0.051238656
11.209528 12.143806 0.051253319
11.167208 12.203986 0.051260203
11.115212 12.253613 0.051270604
11.011224 12.352959 0.051291555
10.926001 12.474078 0.051304549
10.859105 12.506761 0.051321
10.827815 12.580952 0.051322788
10.75348 12.604696 0.051342398
10.720238 12.677096 0.051344723
10.653352 12.709435 0.051361293
10.611801 12.772319 0.051367074
10.542095 12.800983 0.051384836
10.486167 12.846395 0.05139643
10.444423 12.90951 0.05140239
10.410408 12.982688 0.051404625
10.357402 13.032237 0.051414788
10.292473 13.066589 0.051430404
10.243954 13.121985 0.051438779
10.205478 13.190703 0.051442564
10.128509 13.209154 0.051463038
10.084632 13.271135 0.051469535
10.031439 13.320963 0.051479578
9.9910746 13.388272 0.051484197
9.73773 13.658736 0.051528275
9.6866655 13.712925 0.051537067
9.5819664 13.818274 0.051555634
9.5148678 13.849561 0.051571488
9.4443254 13.875551 0.051589131
9.417572 13.966914 0.051586509
9.3565712 14.00741 0.051599443
9.3348217 14.107882 0.051594228
9.2536259 14.117809 0.05161646
9.2097988 14.185357 0.051621228
9.1424828 14.216507 0.051636904
9.0905199 14.271877 0.051645428
9.0303116 14.31434 0.051657528
8.9421673 14.452242 0.051666766
8.7635651 14.585585 0.051701784
8.7328205 14.679256 0.05169934
8.6636906 14.708117 0.051715463
8.6169415 14.775643 0.05172053
8.5603485 14.826537 0.051730484
8.4975777 14.866772 0.051743299
8.4536428 14.940781 0.051746577
8.3326178 15.030603 0.051769644
8.2708015 15.073391 0.051781595
8.0032969 15.37067 0.051819295
7.9466152 15.425488 0.051828146
7.7083006 15.625627 0.05186832
7.6652431 15.710914 0.051869482
7.6086912 15.769034 0.05187723
7.5509233 15.82515 0.051885903
7.5020924 15.901007 0.051889569
6.305254 17.081194 0.052050471
6.2549877 17.175871 0.05205071
6.198349 17.254404 0.052054733
6.133904 17.311993 0.052063316
6.0687466 17.368402 0.052072376
6.0080252 17.43878 0.052078187
5.9480705 17.512751 0.052083194
5.8825808 17.571331 0.052091748
5.8173065 17.631573 0.052099824
5.7500982 17.686823 0.052109033
5.6885171 17.760895 0.052114129
5.6195889 17.812794 0.052124232
5.5258131 17.784084 0.052150875
5.397593 17.639008 0.05220139
5.2721601 17.497952 0.052250355
5.1536427 17.375343 0.052295476
5.0448208 17.281841 0.052334189
4.9325771 17.172321 0.052375674
4.8237829 17.070824 0.052415431
4.7080936 16.939764 0.052460372
4.5998354 16.831205 0.052500755
4.5017557 16.756847 0.052533805
4.4296374 16.779753 0.052547604
4.3718896 16.859543 0.052550167
4.3031497 16.897419 0.052561015
4.2398529 16.958334 0.052567244
4.177969 17.026794 0.052572161
4.1151056 17.09309 0.052577496
4.0519691 17.160133 0.052582741
3.9801781 17.190861 0.052594781
5.9190035 26.317682 0.050897598
5.7684226 26.177635 0.050951093
2.8940992 15.118275 0.053123981
2.817678 15.072249 0.053147048
2.7356529 14.991376 0.053176001
2.6523607 14.898245 0.053207129
2.5747004 14.833282 0.053232819
2.4933307 14.741274 0.053263098
2.4076681 14.616245 0.053298801
2.3370852 14.581686 0.05331862
2.2594841 14.497337 0.053346813
2.1830914 14.415561 0.053374186
2.1098092 14.35023 0.053398684
2.0329726 14.253817 0.053428218
1.9654653 14.221459 0.053446651
1.8892305 14.117353 0.053477064
1.8193967 14.057522 0.053499624
1.7476633 13.976497 0.053525805
1.6803873 13.927905 0.05354622
1.6104248 13.850163 0.053571239
1.5406513 13.767105 0.053596929
1.4729254 13.69664 0.053620338
1.4074628 13.64277 0.053640962
1.3414958 13.577636 0.053663239
1.2749071 13.498238 0.053687423
1.212822 13.464364 0.053704247
1.1473906 13.383349 0.053728506
1.0882063 13.376818 0.053740874
1.0331843 13.428886 0.053743809
0.97824645 13.488708 0.053745821
0.92395329 13.567273 0.053744793
0.8674767 13.61866 0.053748012
0.81025529 13.66382 0.053752244
0.75351048 13.726718 0.053753704
0.69571161 13.777393 0.053757235
0.63790989 13.838814 0.053758875
0.82385778 20.995789 0.052701652
0.72904682 20.890793 0.052733913
0.63519049 20.786373 0.05276601
0.54259777 20.697531 0.052795276
0.45045137 20.58828 0.052827269
0.35977125 20.518618 0.05285351
0.26956367 20.431559 0.052881554
0.1800642 20.329103 0.052911952
0.091449738 20.246258 0.052939132
0.0035276413 20.170027 0.052965343
-0.083538055 20.072416 0.052994072
-0.1699028 19.985437 0.053021133
-0.25569344 19.908083 0.053046912
-0.34090137 19.834358 0.053071752
-0.42470169 19.731283 0.053100586
-0.50804424 19.641848 0.053126961
-0.59174967 19.584044 0.053148881
-0.67353201 19.489914 0.053175896
-0.75455236 19.396442 0.053202391
-0.47025704 11.783468 0.054242641
-0.51889467 11.728941 0.054258056
-0.56706786 11.674215 0.054273583
-0.61551404 11.631271 0.054287143
-0.66339993 11.585134 0.054301053
-0.71124911 11.54379 0.054314218
-0.75852776 11.499254 0.054327816
-0.80398774 11.436581 0.055315167
-0.85002589 11.386692 0.055325322
-0.8980093 11.363513 0.055334404
-0.94406283 11.321215 0.055352837
-0.98947835 11.275743 0.055362497
-1.0342146 11.227108 0.055372179
-1.0766593 11.160399 0.055382341
-1.1225864 11.13031 0.055391055
-1.1680473 11.098049 0.055399708
-1.2113625 11.049715 0.055408653
-1.2573367 11.026026 0.055416897
-1.2998383 10.976355 0.055425763
-1.3424563 10.930491 0.055434495
-1.3828076 10.870594 0.055443488
-1.4257343 10.832337 0.055451773
-1.4690748 10.798862 0.055459708
-1.5102261 10.752358 0.055467941
-1.5519165 10.711633 0.055475991
-1.5946947 10.679638 0.055483419
-1.6335191 10.624773 0.055491742
-1.6757016 10.592458 0.055499054
-1.7139013 10.538294 0.055507075
-1.7568836 10.513544 0.055514026
-1.7979012 10.478778 0.05552122
-1.8384687 10.442874 0.055528298
-1.8759563 10.39208 0.055535708
-1.9132284 10.342139 0.055542938
-1.9534254 10.308743 0.055549726
-1.9923711 10.270298 0.055556539
-2.0312238 10.232684 0.055563226
-2.0720797 10.205688 0.055569522
-2.1093411 10.162897 0.055576023
-2.1447527 10.11314 0.055582732
-2.1830883 10.077899 0.055588935
-2.2189059 10.032773 0.055595346
-2.2598825 10.010887 0.055601135
-2.3236208 10.084119 0.055604696
-2.386138 10.149214 0.055608548
-2.4485421 10.211041 0.055612475
-2.5073431 10.256044 0.055616621
-2.5731008 10.325892 0.055620503
-2.6413026 10.402134 0.055624213
-2.7102189 10.477973 0.055627845
-4.2381387 15.895955 0.055535655
-4.2969837 15.839309 0.05554419
-4.3510699 15.767055 0.055553138
-4.4142666 15.728272 0.055561274
-5.2982144 14.82188 0.055678423
-5.3704181 14.818838 0.055684302
-5.425878 14.770494 0.055690281
-5.4735737 14.70231 0.055696521
-5.5311804 14.661064 0.055702198
-5.5849056 14.610274 0.055708069
-5.6408639 14.56581 0.055713579
-5.690239 14.505348 0.0557191
-5.740695 14.448441 0.055724509
-5.7934165 14.397847 0.055729941
-5.8484883 14.353537 0.055735141
-5.8998055 14.300719 0.055740125
-5.9550738 14.257854 0.055745006
-6.0096874 14.21386 0.055749767
-6.0564532 14.152238 0.055754714
-6.1060224 14.097803 0.055759236
-6.1548262 14.04229 0.055763781
-6.2049069 13.990266 0.055768169
-6.2596331 13.948994 0.055772491
-3.8052628 8.4682322 0.055791348
-3.8341217 8.4339037 0.055793818
-3.8636093 8.4012938 0.055796202
-3.9002094 8.3839321 0.055798423
-3.9263024 8.3447943 0.055800717
-3.9600239 8.3217649 0.055802863
-3.9900818 8.2914286 0.055804893
-4.0195069 8.2600927 0.055806812
-4.0469341 8.2250862 0.055808831
-4.0782223 8.1980143 0.055810794
-4.11485 8.1814976 0.055812567
-4.1412506 8.1453018 0.055814359
-4.1716089 8.1169977 0.055816054
-4.2003908 8.0859327 0.055817753
-4.2261429 8.0494871 0.055819385
-4.260251 8.0287914 0.055820823
-4.2846375 7.9904141 0.055822387
-4.3141069 7.9615989 0.055823788
-4.3468304 7.9387875 0.055825152
-4.3735275 7.9053969 0.055826358
-4.4010115 7.8736615 0.05582758
-4.4283037 7.8418369 0.055828765
-4.4594345 7.8168344 0.055829912
-4.4899263 7.7908497 0.055830896
-4.5233464 7.7699008 0.055831917
-4.5571866 7.7496676 0.055832908
-4.5815983 7.7139001 0.05583372
-4.608922 7.6831808 0.055834569
-4.6434364 7.6642761 0.055835292
-4.6699243 7.6324959 0.055836037
-4.695158 7.5989394 0.055836707
-4.7223396 7.5686817 0.055837281
-4.7504306 7.5400152 0.055837698
-4.7761846 7.5078907 0.05583825
-4.8105245 7.4890661 0.055838682
-4.8365126 7.4575758 0.055839077
-4.8734331 7.4426322 0.055839427
-4.895216 7.4051228 0.055839673
-4.9229593 7.3766603 0.055839881
-4.9426174 7.3365564 0.055839956
-4.968863 7.3062844 0.055840053
-4.9995298 7.2824745 0.055840038
-5.024312 7.2503691 0.055840053
-5.0645933 7.2401676 0.055839993
-5.0896912 7.2086525 0.055839889
-5.1122603 7.173821 0.055839665
-5.1352167 7.1397347 0.055839442
-5.1657066 7.1160355 0.055839173
-5.1966887 7.0930071 0.055838801
-5.2281728 7.0706425 0.055838443
-5.2510862 7.036994 0.055837952
-5.2786798 7.0096283 0.055837505
-5.3012371 6.9758291 0.055836879
-5.3248348 6.9435439 0.055836268
-5.3587775 6.9245353 0.05583562
-5.3895459 6.9014502 0.055834897
-5.4214678 6.879786 0.055834249
-5.4432364 6.8455429 0.055833377
-5.4660759 6.812789 0.055832423
-5.4938245 6.786139 0.055831492
-5.5227251 6.7609148 0.055830494
-5.5534415 6.7378654 0.05582954
-5.5782471 6.707808 0.055828407
-5.5990019 6.6730995 0.055827238
-5.6332712 6.6542463 0.055826105
-5.8190374 6.8095579 0.055825375
-9.8859348 11.387124 0.055838689
-9.9421234 11.350963 0.055836543
-9.986866 11.301845 0.055834249
-10.042746 11.265183 0.055831969
-10.076308 11.203826 0.055829436
-10.127095 11.161555 0.055826813
-10.185853 11.127871 0.055824295
-10.232236 11.080718 0.055821553
-10.287994 11.043572 0.055818722
-10.327793 10.989467 0.055815816
-10.37216 10.940281 0.05581288
-10.410042 10.884441 0.055809736
-10.458802 10.839943 0.055806547
-10.501065 10.788806 0.055803239
-10.540268 10.734667 0.055799872
