# .PCD v0.7 - Point Cloud Data file format
VERSION 0.7
FIELDS x y z
SIZE 4 4 4
TYPE F F F
COUNT 1 1 1
WIDTH 599
HEIGHT 1
VIEWPOINT 0 0 0 1 0 0 0
POINTS 599
DATA ascii
-1.790273 -1.9201374 0.05459892
-1.7714033 -1.9176464 0.054584496
-1.7573953 -1.9367967 0.054540977
-1.7310067 -1.9260612 0.05453223
-1.7191653 -1.930401 0.05451405
-1.7442251 -1.9740962 0.054470167
-1.7893441 -2.0400364 0.054410987
-1.1149367 -1.3248034 0.05487543
-1.0983753 -1.3182747 0.054869745
-1.1015298 -1.3450785 0.054831326
-1.1992564 -1.4669504 0.054735884
-1.2516668 -1.5394106 0.054673743
-1.2421311 -1.5556958 0.054639727
-1.2333899 -1.5592649 0.054626066
-1.2304715 -1.5696452 0.05460744
-1.211123 -1.5884829 0.054560643
-2.1088083 -2.7210612 0.053664804
-2.0956748 -2.7291188 0.053640455
-2.0536373 -2.7497673 0.053570598
-2.0356925 -2.7763834 0.053513937
-2.0126204 -2.7965164 0.053462625
-1.9992137 -2.8041108 0.053439096
-1.9665008 -2.8370132 0.053360313
-1.9324405 -2.8160214 0.053361379
-1.8555105 -2.7346282 0.053414777
-1.7747004 -2.646096 0.053475499
-1.6964264 -2.5593662 0.053535789
-1.6309497 -2.4892368 0.053582683
-1.5695288 -2.4235241 0.053626567
-1.5143598 -2.3655791 0.053664416
-0.42942208 -0.78633368 0.055063538
-0.39256102 -0.7388227 0.055101976
-0.38269907 -0.73097897 0.055105068
-0.36976528 -0.72512734 0.05510259
-0.36182219 -0.72668684 0.055093512
-0.33128428 -0.7057122 0.055098467
-0.32719517 -0.71288663 0.055111196
-0.31280291 -0.69586742 0.05512356
-0.29703969 -0.67615485 0.055138618
-0.29460067 -0.67875099 0.055133034
-0.27027172 -0.69129002 0.055096485
-0.23605952 -0.67640269 0.055090945
-0.21098717 -0.66192555 0.055092111
-0.21273924 -0.68868941 0.055056699
-0.19692813 -0.66950297 0.055071402
-0.18735109 -0.6878373 0.055039473
-0.16879849 -0.70287508 0.055005938
-0.16684893 -0.73565829 0.054960229
-0.15855138 -0.74288452 0.054944806
-0.14920078 -0.78085089 0.054887399
-0.15579239 -0.8133893 0.054848053
-0.14840907 -0.81464982 0.054841485
-0.15560214 -0.8511402 0.054797258
-0.16419822 -0.89345729 0.054746136
-0.15852754 -0.91802227 0.054709546
-0.14416918 -0.91266185 0.054707482
-0.1359551 -0.9303326 0.054678671
-0.11179096 -0.91874045 0.054679021
-0.10234785 -0.93317765 0.054653984
-0.092363507 -0.92611563 0.054657288
-0.08646369 -0.9385578 0.054637186
-0.086043388 -0.9580127 0.054611076
-0.063260913 -0.9510442 0.054606795
-0.043122977 -0.95837212 0.054585334
-0.040844083 -0.97185618 0.054566171
-0.02608338 -0.99105585 0.05453233
-0.016371101 -0.98319829 0.054537248
-0.013706267 -0.99761051 0.054516688
-0.0014866292 -1.006994 0.05449748
0.0084109008 -0.99590939 0.054506689
0.019649625 -1.0189738 0.054470077
0.028237313 -1.023641 0.054459259
0.04514581 -1.0417428 0.054426335
0.048726737 -1.0609558 0.054399069
0.063334003 -1.0415728 0.054416992
0.076217726 -1.0719776 0.054370165
0.081063747 -1.0630807 0.054379407
0.085908756 -1.0491623 0.054395292
0.1041871 -1.0512792 0.054383207
0.10877727 -1.0532587 0.054378286
0.13145062 -1.0438588 0.054379404
0.14479432 -1.0363866 0.054382727
0.14935207 -1.0371878 0.054379448
0.16277847 -1.0344796 0.054376531
0.18901731 -1.0235612 0.054378495
0.19222546 -1.0092263 0.054395936
0.2036635 -0.99104512 0.05441466
0.21971205 -0.97918767 0.054422956
0.24175835 -0.95202076 0.054448966
0.25703052 -0.96787977 0.054421142
0.26461774 -0.96155834 0.05442616
0.26912236 -0.93844247 0.054454859
0.27968076 -0.94972408 0.054435268
0.28655466 -0.91986281 0.054471955
0.30489868 -0.92724335 0.054454271
0.31639349 -0.90409851 0.054480195
0.32197437 -0.90995729 0.054470066
0.33475965 -0.89436382 0.054485492
0.35665119 -0.88315594 0.054491431
0.35486111 -0.862845 0.054519266
0.3597579 -0.8655656 0.054513633
0.37240261 -0.84069604 0.05454177
0.37845159 -0.83450598 0.054547627
0.39259833 -0.84026229 0.054534275
0.39573455 -0.81475127 0.054567218
0.41181248 -0.79373914 0.054589093
0.42168823 -0.79842871 0.054578949
0.42365533 -0.79331923 0.054585055
0.44746104 -0.75579596 0.054626353
0.45410943 -0.76153964 0.05461609
0.46039021 -0.76633406 0.054607246
0.46267769 -0.73750871 0.054645211
0.47814757 -0.74432003 0.054630186
0.49080542 -0.72189301 0.05465569
0.50016636 -0.73160243 0.054639071
0.50358576 -0.69410419 0.054688469
0.50197625 -0.67766023 0.05471129
0.5179019 -0.67738688 0.054705746
0.51386774 -0.65160662 0.054742116
0.53911585 -0.64095712 0.054747187
0.56056368 -0.62449932 0.054761536
0.55278808 -0.60286629 0.054793708
0.55178773 -0.59610689 0.054803245
0.56906366 -0.58646768 0.054809891
0.58872318 -0.59499449 0.05479103
0.58875775 -0.58978188 0.054798082
0.58918631 -0.56980312 0.054824974
0.59879482 -0.55605495 0.054839976
0.61886746 -0.56348896 0.054822393
0.62476587 -0.54558361 0.054844353
0.62643838 -0.54257816 0.054847777
0.63840771 -0.5221231 0.054870836
0.63569462 -0.51051658 0.054887503
0.64371526 -0.49604985 0.054903902
0.65704435 -0.4779653 0.054923035
0.66977727 -0.48461363 0.054909185
0.68528879 -0.48479614 0.054902911
0.68192005 -0.46516758 0.054930456
0.69580662 -0.4472338 0.054948889
0.71335381 -0.45212418 0.054935426
0.71134412 -0.4344278 0.0549597
0.73325491 -0.42557555 0.054962583
0.72261465 -0.41450101 0.054981507
0.66759896 -0.37077153 0.05506248
0.64150214 -0.35036662 0.055099793
0.61978072 -0.32676721 0.055139393
0.63254708 -0.3094922 0.055156253
0.64862072 -0.3156516 0.055141516
0.63476408 -0.29542002 0.055173323
0.64556277 -0.26818052 0.055203222
0.66229099 -0.27035466 0.055193149
0.68324214 -0.25584382 0.055202045
0.67731273 -0.24431457 0.055219028
0.66115481 -0.21479133 0.055262744
0.64430416 -0.20564049 0.055281624
0.64325035 -0.19986239 0.055289164
0.62534177 -0.17532781 0.055327214
0.60962701 -0.15544462 0.055358425
0.63919115 -0.14666316 0.055355065
0.63209027 -0.14225553 0.055363618
0.62904239 -0.13407466 0.055374693
0.63795447 -0.13135791 0.055373661
0.63559902 -0.12831971 0.05537834
0.6225819 -0.11802685 0.055396512
0.67546439 -0.11944005 0.055369664
0.6691134 -0.11554804 0.055377185
0.67790622 -0.10689245 0.055382878
0.67888725 -0.088940606 0.055402704
0.71724451 -0.064755827 0.055410884
0.70582968 -0.058245018 0.055423565
0.75558722 -0.051475555 0.055406563
0.77296126 -0.046931669 0.055402931
0.72741759 -0.038318038 0.055434488
0.74782848 -0.031058088 0.055432193
0.73225898 -0.019304842 0.055452228
0.718481 -0.0081276894 0.055470675
0.74648559 0.0056097656 0.05547104
0.76717502 0.020343259 0.055475809
0.77007324 0.023355573 0.055477425
0.73886549 0.027800977 0.055497259
0.74924284 0.039603889 0.055503894
0.73509026 0.041498229 0.055512719
0.78477269 0.047806635 0.055494487
0.89025247 0.058762252 0.055453353
0.90695167 0.084826201 0.055470362
0.87994236 0.092276216 0.05549068
0.88513041 0.10679816 0.055501834
0.86535937 0.11088499 0.055515278
0.84484762 0.13118857 0.055543907
0.84309238 0.15100205 0.055562586
0.82540745 0.15728465 0.055576626
0.82619649 0.16742462 0.055585146
0.83713251 0.1733477 0.055585094
0.83702677 0.19035947 0.05559979
0.84585291 0.196123 0.055600528
0.83831799 0.20102702 0.055608232
0.85098702 0.21508037 0.055614062
0.87016124 0.22788239 0.055615764
0.87578356 0.23692814 0.0556206
0.88225943 0.24639092 0.055625334
0.914083 0.26821175 0.055628352
0.91143638 0.27915141 0.055638321
0.9309696 0.28995648 0.055638008
0.94853896 0.30026764 0.055638179
0.93930364 0.30524704 0.055646263
0.95064551 0.31781328 0.055650953
0.96700805 0.32826412 0.055651717
0.97099686 0.34287137 0.055661146
0.99484247 0.36133534 0.055664614
1.0071313 0.3709228 0.055666424
1.0176808 0.38462529 0.055672076
1.0281407 0.40337771 0.05568146
1.0501566 0.41791084 0.055682611
1.0764301 0.44483614 0.055690944
1.0797517 0.45671415 0.055698108
1.1150941 0.48950219 0.055706542
1.1363206 0.51658452 0.055716734
1.1545827 0.53146571 0.055719532
1.1694479 0.55072552 0.055726763
1.1734411 0.56468737 0.05573472
1.1956747 0.5825265 0.055737838
1.2124898 0.59772539 0.055741314
1.2309496 0.61403775 0.055744898
1.2536695 0.63293111 0.055748466
1.2596359 0.64280766 0.055752695
1.2892959 0.67977798 0.055765457
1.308821 0.69797355 0.055769742
1.3290731 0.71685684 0.055774141
1.3483217 0.73542136 0.055778712
1.3545469 0.74648643 0.05578348
1.3658395 0.76071429 0.055788293
1.3804497 0.77713311 0.055793226
1.4026096 0.79840273 0.055798344
1.4195087 0.81671834 0.055803545
1.4328821 0.83307368 0.055808857
1.4545903 0.85490453 0.0558144
1.4744468 0.87586415 0.0558201
1.4882622 0.8932212 0.055825777
1.5145248 0.9188956 0.055831946
1.5405892 0.94481575 0.055838346
1.5556197 0.96379578 0.055844478
1.5779904 0.98793131 0.055851065
1.592721 1.0072407 0.055857487
1.6130935 1.0306418 0.055864304
1.6522338 1.0672827 0.055872329
1.6804072 1.0968652 0.055879988
1.7058953 1.1249905 0.055887736
1.7376971 1.1579813 0.055896103
1.7513412 1.1784799 0.055903435
1.7891697 1.2166671 0.055912681
1.8258867 1.2546175 0.05592218
1.8606929 1.2917268 0.055931762
1.900027 1.332736 0.055942036
1.925424 1.3639296 0.055951379
1.9577652 1.4007916 0.055961601
2.0065241 1.4506862 0.055973671
2.0517111 1.4985943 0.055985808
2.0894036 1.5414076 0.055997483
2.1456594 1.5993688 0.05601152
2.1943829 1.6522715 0.056025207
2.2419009 1.7050059 0.056039065
2.2983499 1.7657034 0.056054465
2.3620763 1.8332243 0.056071252
2.4175141 1.8950005 0.056087464
2.4477797 1.9369197 0.056100823
4.2779202 3.4787841 0.056361362
4.2527552 3.4886026 0.056374654
4.2359715 3.5053816 0.056389004
4.2206421 3.5233808 0.056403458
4.2082624 3.5439267 0.05641827
4.1950264 3.5637751 0.056432903
4.1764369 3.5789557 0.056446582
4.1600385 3.5960312 0.056460574
4.1413307 3.6110325 0.056474105
4.1277695 3.6306274 0.05648835
4.1148529 3.650846 0.056502685
4.1025734 3.6716962 0.056517094
4.0997276 3.7013407 0.056533217
4.1909761 3.8190813 0.056567207
4.4639606 4.1098061 0.056637466
4.74898 4.4167581 0.056712449
5.0451126 4.7394176 0.056792051
5.3198252 5.0466638 0.056869894
7.4121575 7.1322494 0.057334334
7.3717155 7.1549468 0.057356656
7.344697 7.1908145 0.057381809
7.3591938 7.2683325 0.057416081
10.667562 10.674377 0.058203101
10.613905 10.713218 0.058236361
11.60251 11.823442 0.058516443
11.540421 11.862688 0.058551371
11.500323 11.924751 0.058591723
11.435826 11.961285 0.058625579
11.38287 12.009873 0.058662057
11.329699 12.058227 0.058698416
11.2709 12.100468 0.058732867
11.22477 12.156444 0.058770478
11.168962 12.201878 0.058805108
11.133023 12.269361 0.058845103
11.071424 12.308396 0.058877945
11.026909 12.366614 0.058915257
10.964305 12.404365 0.058947027
10.90486 12.44558 0.05897975
10.835476 12.475142 0.059008777
10.767341 12.505858 0.059037924
10.720445 12.561419 0.059073508
10.693177 12.640572 0.059114933
10.516774 12.765667 0.059208333
10.462885 12.813302 0.05924058
10.426918 12.883337 0.059278667
10.37001 12.927464 0.059309661
10.318481 12.978409 0.059342206
10.239639 12.994462 0.059364676
10.204889 13.067034 0.059402704
10.150847 13.114943 0.059433758
10.121372 13.195278 0.059473693
10.030058 13.194105 0.059490561
9.9927473 13.264542 0.058806956
9.9342079 13.306748 0.058834612
9.8878946 13.365643 0.058866203
9.8177633 13.39201 0.058882117
9.7925348 13.480541 0.058920205
9.719141 13.502318 0.058942378
9.6791897 13.571097 0.058975458
9.6044369 13.590614 0.058996558
9.5558939 13.64755 0.059026361
9.5019379 13.696902 0.059054077
9.4556036 13.757618 0.059084356
9.2322559 13.946316 0.059190512
9.1789589 13.997753 0.059217691
9.1437645 14.077599 0.059251428
9.0833521 14.118591 0.059275389
9.0312843 14.17286 0.059302509
8.9699163 14.212523 0.059325874
8.908371 14.251915 0.05934906
8.8555231 14.305545 0.059375346
8.8003006 14.355564 0.059400737
8.7391529 14.395939 0.059423268
8.6859894 14.44981 0.059449255
8.6360683 14.509525 0.059476435
8.5797501 14.558709 0.059500635
8.5121765 14.588619 0.059519887
8.4712696 14.665113 0.059550583
8.4126415 14.711056 0.059573531
8.3601151 14.768112 0.059598923
8.2990179 14.810116 0.059620321
8.234827 14.846607 0.05964011
8.2024078 14.941717 0.059675038
8.1452017 14.991888 0.059697986
8.0694237 15.007399 0.059711456
8.0271482 15.086271 0.059741557
7.9594288 15.117148 0.059758782
7.9098883 15.18329 0.059784949
7.8104181 15.316929 0.05983758
7.7359667 15.335186 0.059850633
7.4474802 15.599344 0.059958935
7.3924599 15.65934 0.059981823
7.1510811 15.858169 0.06006074
7.1019621 15.934542 0.060086966
7.0379744 15.977765 0.06010434
6.977685 16.029924 0.060123712
6.9369736 16.128817 0.06015566
6.8623152 16.148331 0.060165823
6.3868666 16.617548 0.060325056
6.2102323 16.812092 0.060386628
6.0783525 16.907169 0.060417175
5.6900778 17.230898 0.06051451
5.6395283 17.332268 0.060542941
5.5761924 17.395367 0.060560852
5.5180359 17.476391 0.060583413
5.4563589 17.547674 0.060602874
5.3912826 17.609173 0.060619593
5.3167033 17.639751 0.06062758
5.253129 17.70842 0.060646027
5.1874046 17.771101 0.060662359
5.1274614 17.85568 0.06068477
5.0631433 17.926586 0.060702771
4.9904256 17.968323 0.060712785
4.9034891 17.957598 0.060708493
4.7816663 17.812984 0.060667008
4.6621981 17.671528 0.060626477
4.5509329 17.556513 0.060592771
4.4417238 17.444748 0.060559779
4.3392668 17.355684 0.060533077
4.2201972 17.193125 0.06048581
4.1190958 17.099949 0.060457617
4.0094595 16.96529 0.06041795
3.9167094 16.899263 0.06039691
3.8341141 16.875715 0.060386807
3.769794 16.934837 0.060399354
3.7015018 16.977091 0.060407192
3.6365681 17.036694 0.06041953
3.5755582 17.117615 0.060437441
3.5098224 17.177725 0.060449541
3.4468651 17.25428 0.060465962
3.3739996 17.281485 0.060468435
5.0052743 26.527157 0.062962711
4.8623772 26.397722 0.062920392
4.42803 25.927105 0.062769055
3.9945436 25.369663 0.062593281
2.3692245 15.221629 0.059867471
2.2905111 15.146264 0.059841841
2.2118058 15.065551 0.059814572
2.1323667 14.973538 0.059784204
2.0554638 14.894013 0.059757352
1.9757705 14.786327 0.059722453
1.9015486 14.714955 0.059697539
1.8232989 14.603496 0.059661567
1.7536132 14.558208 0.059643418
1.6817532 14.48873 0.059618577
1.6095929 14.409955 0.059591398
1.5376508 14.325855 0.059562609
1.4647543 14.223482 0.059528977
1.3958752 14.154608 0.059504047
1.3285761 14.096363 0.059482008
1.2623053 14.043781 0.059461325
1.1916764 13.929081 0.059424147
1.1253147 13.857913 0.059398577
1.0597317 13.788427 0.059373364
0.99588013 13.7356 0.059352279
0.93293309 13.689465 0.059332922
0.86753273 13.592125 0.059300423
0.80476427 13.528431 0.059276491
0.7423749 13.460455 0.059251115
0.68085289 13.398187 0.059227526
0.62097454 13.363617 0.059210926
0.56420469 13.409734 0.059214622
0.50646925 13.436615 0.059213579
0.4496429 13.507235 0.059223473
0.39193058 13.564615 0.059229627
0.33370733 13.620748 0.059235215
0.2751267 13.686627 0.059243426
0.21596789 13.751259 0.059250772
0.15610456 13.779631 0.059248909
0.093414307 20.967741 0.061037391
0.0023164749 20.893509 0.061004996
-0.087905407 20.793884 0.060966134
-0.17743587 20.706873 0.060930446
-0.26631832 20.625475 0.060896039
-0.35358715 20.502712 0.060851187
-0.44061518 20.410568 0.060813963
-0.5266304 20.311058 0.060775161
-0.6122818 20.22518 0.060739443
-0.69763184 20.149937 0.060706168
-0.78190088 20.064341 0.060670733
-0.86480951 19.965412 0.060631663
-0.94750357 19.878128 0.060595691
-1.0292273 19.786512 0.06055817
-1.110786 19.70454 0.060523257
-1.1920452 19.628223 0.060489729
-1.2716107 19.536612 0.060452446
-1.3511448 19.454653 0.060417414
-1.4303865 19.377356 0.060383558
-0.87663221 11.719068 0.058560498
-0.9247601 11.680822 0.058541857
-0.97165513 11.632426 0.058520913
-1.0192053 11.594792 0.058502503
-1.0620255 11.513186 0.058473721
-1.1087682 11.475189 0.058455266
-1.1542201 11.428058 0.058434494
-1.2004187 11.390684 0.058416061
-1.2441931 11.335251 0.058393344
-1.2892194 11.293547 0.058373965
-1.3320112 11.236787 0.058351047
-1.3760349 11.19276 0.058331035
-1.41889 11.142616 0.05830957
-1.4624525 11.100236 0.058290042
-1.5059618 11.059668 0.05827073
-1.5488509 11.016954 0.058250904
-1.5915501 10.975063 0.058231436
-1.6299981 10.90832 0.058206417
-1.6725658 10.870075 0.058187507
-1.7153287 10.834622 0.058169469
-1.7551017 10.783237 0.058147926
-1.7977662 10.750423 0.058130272
-1.8387544 10.709571 0.058110878
-1.8763195 10.65185 0.058088038
-1.9199562 10.62839 0.058072463
-1.9559737 10.566473 0.058048673
-1.9971552 10.532885 0.058030818
-2.0354877 10.486402 0.058010355
-2.0773287 10.458385 0.057993721
-2.1150105 10.411619 0.057973266
-2.1531768 10.368635 0.057953473
-2.1910098 10.325513 0.057933815
-2.230056 10.289089 0.057915349
-2.2663517 10.241804 0.057894826
-2.3059499 10.209969 0.057877462
-2.3401752 10.156597 0.057855539
-2.3756459 10.109919 0.057835154
-2.4141464 10.076706 0.057817534
-2.4536362 10.048199 0.057800837
-2.4921722 10.016635 0.057783429
-2.5269158 9.971386 0.05776336
-2.5595005 9.9192667 0.057742067
-2.5964189 9.8844175 0.057724036
-2.6453876 9.8937597 0.057714574
-2.7102447 9.9586821 0.057715818
-2.7718585 10.009768 0.057714175
-2.8432112 10.092184 0.057718325
-2.9051058 10.139651 0.057715576
-2.9738154 10.207835 0.057716571
-3.0387871 10.261269 0.057714257
-3.1036897 10.312416 0.057711661
-4.8412404 15.662642 0.058686882
-4.8951664 15.596184 0.058655869
-4.9501519 15.534307 0.058625445
-5.8227339 14.65391 0.058165733
-5.8506017 14.540018 0.058127925
-5.9254432 14.541638 0.058108389
-5.9775882 14.48848 0.058080167
-6.0262566 14.427779 0.058050863
-6.0764856 14.37152 0.05802232
-6.1279364 14.318769 0.057994328
-6.1782398 14.264013 0.057966001
-6.2322521 14.218224 0.057939276
-6.2847524 14.169502 0.057911843
-6.3240891 14.092384 0.057880335
-6.3792095 14.050611 0.057854198
-6.426899 13.993218 0.057825767
-6.4814649 13.951053 0.057799369
-6.535357 13.907774 0.057773158
-6.5807409 13.84718 0.057744235
-6.6222143 13.779263 0.057714626
-6.6738396 13.732774 0.057687864
-6.731883 13.699519 0.057662964
-6.7726579 13.632091 0.057633236
-4.097867 8.2375927 0.056894459
-4.1392508 8.2298737 0.056880936
-4.1654053 8.1926804 0.056863531
-4.2029591 8.177536 0.056849211
-4.2277842 8.1383848 0.056831665
-4.2599239 8.113266 0.0568159
-4.2904949 8.0853844 0.056799777
-4.3117652 8.0407343 0.056781746
-4.3458223 8.0196657 0.056766614
-4.3704939 7.9818759 0.056749389
-4.3973837 7.9483776 0.056732707
-4.4359775 7.9356303 0.056718588
-4.4615436 7.9001842 0.056701794
-4.4828553 7.8577538 0.056684256
-4.51759 7.8385515 0.056669258
-4.5374146 7.7942753 0.056651615
-4.5672441 7.767118 0.056635864
-4.601594 7.7475414 0.056621
-4.632205 7.7218471 0.056605339
-4.6500502 7.6756239 0.056587733
-4.6813602 7.6514411 0.056572251
-4.7162876 7.6330509 0.056557469
-4.7436218 7.6026955 0.056541502
-4.7697005 7.5705643 0.056525387
-4.7950468 7.5375113 0.056509286
-4.8223906 7.5077257 0.056493558
-4.8412881 7.4653397 0.056476593
-4.8810234 7.4545259 0.05646237
-4.9095736 7.4269257 0.056446977
-4.945858 7.4107933 0.056432322
-4.9645367 7.3689365 0.056415603
-4.9880781 7.3344526 0.056399532
-5.0051031 7.2908936 0.056382857
-5.0426254 7.2767253 0.056368425
-5.0754747 7.2558537 0.056353509
-5.0948019 7.2161684 0.056337312
-5.1197586 7.184546 0.056321576
-5.1492701 7.1592913 0.056306392
-5.1834197 7.1403465 0.056291766
-5.2067318 7.1068187 0.056276068
-5.2280483 7.0708289 0.056260243
-5.2521777 7.0387688 0.056244619
-5.2779551 7.0090098 0.056229368
-5.3017387 6.9767909 0.05621393
-5.3284225 6.9484367 0.056198731
-5.3630095 6.930191 0.056184173
-5.3844671 6.8953414 0.05616872
-5.4132366 6.8697958 0.05615373
-5.4381113 6.839468 0.05613853
-5.4558663 6.8005347 0.056123003
-5.4835663 6.7739248 0.056108087
-5.5143356 6.7510438 0.05609329
-5.5398693 6.7218971 0.056078389
-5.5730104 6.7018147 0.056063771
-5.5995874 6.673965 0.056048915
-5.6149335 6.6331358 0.056033552
-5.6385608 6.6021104 0.056018636
-5.6705971 6.5807767 0.056004092
-5.7038822 6.5607891 0.055989459
-5.7331076 6.536159 0.055974856
-5.758882 6.5076833 0.055960134
-5.7730899 6.4665236 0.055945098
-5.7917786 6.4305248 0.055930302
-5.8238411 6.409173 0.055915847
-5.8578768 6.3898578 0.055901453
-5.9740763 6.4577718 0.055888116
-10.293344 10.953243 0.055925071
-10.345856 10.912867 0.055900037
-10.389878 10.863607 0.055874974
-10.437158 10.817754 0.055849999
-10.489844 10.777401 0.055824995
-10.533931 10.728271 0.05580008
